# .PCD v0.7 - Point Cloud Data file format
VERSION 0.7
FIELDS x y z rgb
SIZE 4 4 4 4
TYPE F F F U
COUNT 1 1 1 1
WIDTH 1101
HEIGHT 1
VIEWPOINT 0 0 0 1 0 0 0
POINTS 1101
DATA ascii
0.18510543 0.60450512 1.3591658 4281343754
0.18769433 0.60450512 1.3591658 4281540874
0.19028319 0.60450512 1.3591658 4281736205
0.19287209 0.60450512 1.3591658 4281737744
0.19546099 0.60450512 1.3591658 4281803280
0.19804987 0.60450512 1.3591658 4281870097
0.20063876 0.60450512 1.3591658 4282001426
0.20322764 0.60450512 1.3591658 4282330132
0.20581654 0.60450512 1.3591658 4282723866
0.20840542 0.60450512 1.3591658 4282461472
0.2109943 0.60450512 1.3591658 4282198817
0.2135832 0.60450512 1.3591658 4282067746
0.21617207 0.60450512 1.3591658 4282002464
0.21876097 0.60450512 1.3591658 4282067999
0.22134985 0.60450512 1.3591658 4282133534
0.22311057 0.60226959 1.3541393 4282198557
0.22568989 0.60226959 1.3541393 4282198301
0.2282692 0.60226959 1.3541393 4282198813
0.23170541 0.60450512 1.3591658 4282199067
0.23342782 0.60226959 1.3541393 4282264858
0.23600714 0.60226959 1.3541393 4282330394
0.23858646 0.60226959 1.3541393 4282199066
0.24116577 0.60226959 1.3541393 4282067996
0.24374507 0.60226959 1.3541393 4282067999
0.24632441 0.60226959 1.3541393 4282134051
0.24890369 0.60226959 1.3541393 4282198567
0.25148299 0.60226959 1.3541393 4282264099
0.25406232 0.60226959 1.3541393 4282329888
0.25664163 0.60226959 1.3541393 4282396198
0.25922096 0.60226959 1.3541393 4282330668
0.26180026 0.60226959 1.3541393 4282266404
0.26437959 0.60226959 1.3541393 4282331932
0.26695889 0.60226959 1.3541393 4282397473
0.26953819 0.60226959 1.3541393 4282330918
0.2721175 0.60226959 1.3541393 4282264864
0.27469683 0.60226959 1.3541393 4282133274
0.27727613 0.60226959 1.3541393 4282002201
0.27985546 0.60226959 1.3541393 4281936664
0.28243479 0.60226959 1.3541393 4281871383
0.28501409 0.60226959 1.3541393 4282002454
0.28759342 0.60226959 1.3541393 4282133778
0.28909558 0.60003388 1.3491126 4282067471
0.29166529 0.60003388 1.3491126 4282067470
0.29423502 0.60003388 1.3491126 4281870606
0.29680479 0.60003388 1.3491126 4281674000
0.29803607 0.59735125 1.343081 4281674003
0.3005943 0.59735125 1.343081 4281674003
0.30315259 0.59735125 1.343081 4281475603
0.30708373 0.60003388 1.3491126 4281343761
0.30965346 0.60003388 1.3491126 4281343247
0.31082731 0.59735125 1.343081 4281408527
0.31338555 0.59735125 1.343081 4281539855
0.31594381 0.59735125 1.343081 4281671440
0.31850204 0.59735125 1.343081 4281737745
0.3198587 0.5951156 1.3380544 4281869589
0.32240739 0.5951156 1.3380544 4281935385
0.32495609 0.5951156 1.3380544 4282066959
0.32750472 0.5951156 1.3380544 4282132741
0.33129331 0.59735125 1.343081 4282198799
0.33260211 0.5951156 1.3380544 4282067738
0.33640981 0.59735125 1.343081 4281937177
0.33896807 0.59735125 1.343081 4282133273
0.3415263 0.59735125 1.343081 4282329884
0.34408456 0.59735125 1.343081 4282395423
0.34664279 0.59735125 1.343081 4282461216
0.34920105 0.59735125 1.343081 4282592289
0.35175928 0.59735125 1.343081 4282658083
0.35431758 0.59735125 1.343081 4282724390
0.35687581 0.59735125 1.343081 4282725161
0.35943407 0.59735125 1.343081 4282922028
0.3619923 0.59735125 1.343081 4283184939
0.36455053 0.59735125 1.343081 4283119403
0.36710879 0.59735125 1.343081 4283119402
0.36966705 0.59735125 1.343081 4283119401
0.37222531 0.59735125 1.343081 4283119655
0.37478355 0.59735125 1.343081 4283119654
0.37734181 0.59735125 1.343081 4283185700
0.37990004 0.59735125 1.343081 4283120162
0.38102692 0.5951156 1.3380544 4283120932
0.38357562 0.5951156 1.3380544 4283185447
0.38612425 0.5951156 1.3380544 4283251239
0.38867295 0.5951156 1.3380544 4283250983
0.39122164 0.5951156 1.3380544 4283250729
0.39377028 0.5951156 1.3380544 4283185452
0.39631897 0.5951156 1.3380544 4283186229
0.39886764 0.5951156 1.3380544 4283251518
0.40141633 0.5951156 1.3380544 4283316786
0.403965 0.5951156 1.3380544 4283251495
0.40651366 0.5951156 1.3380544 4283185961
0.40906236 0.5951156 1.3380544 4283250988
0.41161102 0.5951156 1.3380544 4283382313
0.41415969 0.5951156 1.3380544 4283185703
0.41670838 0.5951156 1.3380544 4282989350
0.41925704 0.5951156 1.3380544 4283119397
0.42180574 0.5951156 1.3380544 4283250209
0.42276031 0.59288001 1.333028 4283381022
0.42529938 0.59288001 1.333028 4283512101
0.42783847 0.59288001 1.333028 4283315245
0.4303776 0.59288001 1.333028 4283118386
0.4329167 0.59288001 1.333028 4283118647
0.43709779 0.5951156 1.3380544 4283053358
0.43964645 0.5951156 1.3380544 4283053861
0.44219512 0.5951156 1.3380544 4283055399
0.44474378 0.5951156 1.3380544 4283120169
0.44729248 0.5951156 1.3380544 4283185697
0.44984117 0.5951156 1.3380544 4283315738
0.45238981 0.5951156 1.3380544 4283512094
0.4549385 0.5951156 1.3380544 4283315747
0.45576862 0.59288001 1.333028 4283120165
0.45830768 0.59288001 1.333028 4283119911
0.46084681 0.59288001 1.333028 4283119404
0.46513319 0.5951156 1.3380544 4283250225
0.46768188 0.5951156 1.3380544 4283381294
0.47023052 0.5951156 1.3380544 4283250475
0.4710032 0.59288001 1.333028 4283185448
0.4735423 0.59288001 1.333028 4283119653
0.47608143 0.59288001 1.333028 4283053868
0.4786205 0.59288001 1.333028 4283118899
0.47934529 0.59064448 1.3280015 4283249962
0.48187482 0.59064448 1.3280015 4283118882
0.48440436 0.59064448 1.3280015 4283053861
0.48693389 0.59064448 1.3280015 4283119912
0.48946342 0.59064448 1.3280015 4283186480
0.49199295 0.59064448 1.3280015 4283185720
0.49452248 0.59064448 1.3280015 4283185713
0.49705198 0.59064448 1.3280015 4283119659
0.49958152 0.59064448 1.3280015 4283119658
0.50211108 0.59064448 1.3280015 4283185193
0.50464058 0.59064448 1.3280015 4283250988
0.50717014 0.59064448 1.3280015 4283185456
0.50969964 0.59064448 1.3280015 4283185717
0.51222914 0.59064448 1.3280015 4283251771
0.51475865 0.59064448 1.3280015 4283252016
0.51728815 0.59064448 1.3280015 4283250981
0.51785016 0.58840883 1.3229749 4283250464
0.52037019 0.58840883 1.3229749 4283119387
0.52487677 0.59064448 1.3280015 4282922782
0.52740628 0.59064448 1.3280015 4282790690
0.52993584 0.59064448 1.3280015 4282658846
0.53044993 0.58840883 1.3229749 4282592795
0.53296989 0.58840883 1.3229749 4282527260
0.53548986 0.58840883 1.3229749 4282527773
0.53596568 0.58617324 1.3179485 4282594076
0.53847611 0.58617324 1.3179485 4282659356
0.54098642 0.58617324 1.3179485 4282790175
0.54349685 0.58617324 1.3179485 4282724898
0.54808962 0.58840883 1.3229749 4282659362
0.55060953 0.58840883 1.3229749 4282724898
0.55312955 0.58840883 1.3229749 4282791451
0.55564946 0.58840883 1.3229749 4282790677
0.55816942 0.58840883 1.3229749 4282855449
0.56068933 0.58840883 1.3229749 4282921246
0.56320935 0.58840883 1.3229749 4282987296
0.56572926 0.58840883 1.3229749 4282659363
0.56824923 0.58840883 1.3229749 4282331686
0.57076913 0.58840883 1.3229749 4282528297
0.57328916 0.58840883 1.3229749 4282724908
0.57580906 0.58840883 1.3229749 4282659375
0.57832903 0.58840883 1.3229749 4282528812
0.58084899 0.58840883 1.3229749 4282594089
0.58336896 0.58840883 1.3229749 4282659368
0.58366287 0.58617324 1.3179485 4282528040
0.58617324 0.58617324 1.3179485 4282462499
0.58868361 0.58617324 1.3179485 4282593567
0.59119403 0.58617324 1.3179485 4282790174
0.5937044 0.58617324 1.3179485 4282724381
0.59621477 0.58617324 1.3179485 4282658585
0.5987252 0.58617324 1.3179485 4282397461
0.60123551 0.58617324 1.3179485 4282200343
0.60374594 0.58617324 1.3179485 4282463258
0.60625625 0.58617324 1.3179485 4282659866
0.60876667 0.58617324 1.3179485 4282725146
0.61127704 0.58617324 1.3179485 4282790683
0.61378741 0.58617324 1.3179485 4282725149
0.61629778 0.58617324 1.3179485 4282725147
0.61880821 0.58617324 1.3179485 4282593817
0.62131852 0.58617324 1.3179485 4282528030
0.62144971 0.5839377 1.312922 4282659107
0.62633932 0.58617324 1.3179485 4282790176
0.62884969 0.58617324 1.3179485 4282725150
0.63136011 0.58617324 1.3179485 4282725662
0.63145298 0.5839377 1.312922 4282725406
0.63638085 0.58617324 1.3179485 4282790941
0.63889116 0.58617324 1.3179485 4282790941
0.64384776 0.58840883 1.3229749 4282725660
0.64636779 0.58840883 1.3229749 4282593563
0.64888769 0.58840883 1.3229749 4282461726
0.65140766 0.58840883 1.3229749 4282396194
0.65392756 0.58840883 1.3229749 4282330654
0.65644759 0.58840883 1.3229749 4282330394
0.65896749 0.58840883 1.3229749 4282330394
0.66148746 0.58840883 1.3229749 4282199322
0.66400737 0.58840883 1.3229749 4282068502
0.66652739 0.58840883 1.3229749 4282067731
0.6690473 0.58840883 1.3229749 4282067224
0.67156726 0.58840883 1.3229749 4282198301
0.67408723 0.58840883 1.3229749 4282329373
0.67660719 0.58840883 1.3229749 4282264093
0.67912716 0.58840883 1.3229749 4282264604
0.68164706 0.58840883 1.3229749 4282067484
0.68416703 0.58840883 1.3229749 4281936400
0.69451398 0.5951156 1.3380544 4281871876
0.69706261 0.5951156 1.3380544 4281807378
0.69961131 0.5951156 1.3380544 4281938464
0.70216 0.5951156 1.3380544 4282135335
-0.4525325 0.33318326 0.7459327 4283576592
-0.44989571 0.3322852 0.74392205 4283576597
-0.44969085 0.33318326 0.7459327 4283576596
-0.44827002 0.33318326 0.7459327 4283576596
-0.44684923 0.33318326 0.7459327 4283642131
-0.44182652 0.33048907 0.73990089 4283576337
-0.44041717 0.33048907 0.73990089 4283510800
-0.44616556 0.33587745 0.75196445 4283314191
-0.44473323 0.33587745 0.75196445 4283117323
-0.86585927 0.65603876 1.4687434 4283249159
-0.86306161 0.65603876 1.4687434 4283379213
-0.860264 0.65603876 1.4687434 4283378963
-0.43724331 0.33453035 0.74894857 4283378965
-0.43581674 0.33453035 0.74894857 4283182360
-0.43555632 0.33542845 0.75095916 4283051286
-0.4341259 0.33542845 0.75095916 4283248149
-0.43269551 0.33542845 0.75095916 4283444247
-0.84347838 0.65603876 1.4687434 4283312921
-0.84413332 0.65873295 1.4747753 4283247637
-0.84132421 0.65873295 1.4747753 4283313426
-0.8385151 0.65873295 1.4747753 4283444493
-0.835706 0.65873295 1.4747753 4283248392
-0.42551193 0.3376736 0.75598568 4283314448
-0.42407197 0.3376736 0.75598568 4283576587
-0.42263198 0.3376736 0.75598568 4283576582
-0.82502109 0.66142714 1.4808071 4283576586
-0.82220054 0.66142714 1.4808071 4283511055
-0.81937987 0.66142714 1.4808071 4283445009
-0.81323326 0.65873295 1.4747753 4283445012
-0.81042415 0.65873295 1.4747753 4283445269
-0.80761504 0.65873295 1.4747753 4283445270
-0.80480593 0.65873295 1.4747753 4283510289
-0.39799163 0.32689679 0.73185849 4283379212
-0.39714235 0.32734582 0.73286378 4283247884
-0.39411783 0.32599869 0.72984785 4283510028
-0.39272764 0.32599869 0.72984785 4283772169
-0.39133745 0.32599869 0.72984785 4283706631
-0.38994727 0.32599869 0.72984785 4283640838
-0.38855711 0.32599869 0.72984785 4283576836
-0.38716689 0.32599869 0.72984785 4283576838
-0.38524535 0.32554966 0.72884256 4283576840
-0.77353823 0.65603876 1.4687434 4283576079
-0.77074063 0.65603876 1.4687434 4283445014
-0.38108051 0.32554966 0.72884256 4283313173
-0.75395495 0.65603876 1.4687434 4283576592
-0.75115734 0.65603876 1.4687434 4283641360
-0.74528641 0.65334451 1.4627116 4283575057
-0.74250025 0.65334451 1.4627116 4283575568
-0.73971409 0.65334451 1.4627116 4283445008
-0.73692799 0.65334451 1.4627116 4283379724
-0.73414189 0.65334451 1.4627116 4283445768
-0.73135579 0.65334451 1.4627116 4283576842
-0.72856969 0.65334451 1.4627116 4283445772
-0.72578359 0.65334451 1.4627116 4283313930
-0.72299743 0.65334451 1.4627116 4283379208
-0.72021127 0.65334451 1.4627116 4283444746
-0.71742517 0.65334451 1.4627116 4283444748
-0.7175861 0.65603876 1.4687434 4283444491
-0.71185297 0.65334451 1.4627116 4283313418
-0.70906687 0.65334451 1.4627116 4283247885
-0.70628077 0.65334451 1.4627116 4283313937
-0.70349461 0.65334451 1.4627116 4283378959
-0.70070845 0.65334451 1.4627116 4283378701
-0.69792235 0.65334451 1.4627116 4283378958
-0.69513625 0.65334451 1.4627116 4283444751
-0.68949515 0.65065038 1.4566799 4283575822
-0.68672055 0.65065038 1.4566799 4283510798
-0.68394589 0.65065038 1.4566799 4283510031
-0.6811713 0.65065038 1.4566799 4283444241
-0.67839664 0.65065038 1.4566799 4283444497
-0.67562205 0.65065038 1.4566799 4283444753
-0.67284739 0.65065038 1.4566799 4283444496
-0.67007279 0.65065038 1.4566799 4283444496
-0.66729814 0.65065038 1.4566799 4283444496
-0.66452348 0.65065038 1.4566799 4283444497
-0.66174883 0.65065038 1.4566799 4283510288
-0.65897423 0.65065038 1.4566799 4283510543
-0.65619957 0.65065038 1.4566799 4283510286
-0.65342498 0.65065038 1.4566799 4283378445
-0.65065038 0.65065038 1.4566799 4283313165
-0.64519298 0.64795613 1.4506481 4283444237
-0.64242983 0.64795613 1.4506481 4283575054
-0.63966674 0.64795613 1.4506481 4283575055
-0.63690358 0.64795613 1.4506481 4283575051
-0.63677722 0.65065038 1.4566799 4283575303
-0.63400263 0.65065038 1.4566799 4283575051
-0.63122797 0.65065038 1.4566799 4283575056
-0.62845337 0.65065038 1.4566799 4283575054
-0.62308788 0.64795613 1.4506481 4283509261
-0.62032473 0.64795613 1.4506481 4283509773
-0.61756164 0.64795613 1.4506481 4283443981
-0.6122421 0.64526194 1.4446162 4283378705
-0.60949045 0.64526194 1.4446162 4283378708
-0.60673881 0.64526194 1.4446162 4283444241
-0.60398716 0.64526194 1.4446162 4283640847
-0.60123551 0.64526194 1.4446162 4283837709
-0.5984838 0.64526194 1.4446162 4283706892
-0.59573221 0.64526194 1.4446162 4283575821
-0.59298056 0.64526194 1.4446162 4283576334
-0.59022892 0.64526194 1.4446162 4283641611
-0.58502436 0.64256769 1.4385844 4283641608
-0.58228415 0.64256769 1.4385844 4283641606
-0.57954401 0.64256769 1.4385844 4283510788
-0.57680386 0.64256769 1.4385844 4283445257
-0.57406372 0.64256769 1.4385844 4283511822
-0.57132351 0.64256769 1.4385844 4283641876
-0.56858337 0.64256769 1.4385844 4283642394
-0.56584322 0.64256769 1.4385844 4283641877
-0.56074208 0.6398735 1.4325527 4283641615
-0.55801338 0.6398735 1.4325527 4283641105
-0.55528468 0.6398735 1.4325527 4283575826
-0.55255604 0.6398735 1.4325527 4283510285
-0.54751223 0.63717932 1.4265208 4283576328
-0.5447951 0.63717932 1.4265208 4283641356
-0.54437 0.6398735 1.4325527 4283773456
-0.54164135 0.6398735 1.4325527 4283903500
-0.53891271 0.6398735 1.4325527 4283641351
-0.31355214 0.39425188 0.88265347 4278911240
-0.31080529 0.39290482 0.8796376 4278780676
-0.31018963 0.39425188 0.88265347 4278715140
-0.30850843 0.39425188 0.88265347 4278715140
-0.30577877 0.39290482 0.8796376 4278715139
-0.30514589 0.39425188 0.88265347 4278715395
-0.30346468 0.39425188 0.88265347 4278780675
-0.30178341 0.39425188 0.88265347 4278584068
-0.30010217 0.39425188 0.88265347 4278452995
-0.29842094 0.39425188 0.88265347 4278518787
-0.2967397 0.39425188 0.88265347 4278649605
-0.29505846 0.39425188 0.88265347 4278649864
-0.29337719 0.39425188 0.88265347 4278715143
-0.29069927 0.39290482 0.8796376 4278649607
-0.28902379 0.39290482 0.8796376 4278649605
-0.28734827 0.39290482 0.8796376 4278715140
-0.28567278 0.39290482 0.8796376 4278780676
-0.28399727 0.39290482 0.8796376 4278715140
-0.28328973 0.39425188 0.88265347 4278715140
-0.28160846 0.39425188 0.88265347 4278584068
-0.27992725 0.39425188 0.88265347 4278518788
-0.27824599 0.39425188 0.88265347 4278519045
-0.27656478 0.39425188 0.88265347 4278518789
-0.27488351 0.39425188 0.88265347 4278584325
-0.27320224 0.39425188 0.88265347 4278649605
-0.27152103 0.39425188 0.88265347 4278649605
-0.25827309 0.39200673 0.87762696 4278649604
-0.25660142 0.39200673 0.87762696 4278780676
-0.25551376 0.39290482 0.8796376 4278977284
-0.25383827 0.39290482 0.8796376 4278846212
-0.25216275 0.39290482 0.8796376 4278780677
-0.25048727 0.39290482 0.8796376 4278715398
-0.24881178 0.39290482 0.8796376 4278715141
-0.24713628 0.39290482 0.8796376 4278584068
-0.24546078 0.39290482 0.8796376 4278518533
-0.24267082 0.39110866 0.87561637 4278519047
-0.24100298 0.39110866 0.87561637 4278518790
-0.23933513 0.39110866 0.87561637 4278649861
-0.23766729 0.39110866 0.87561637 4278846468
-0.23545754 0.39021057 0.87360573 4278781187
-0.23433162 0.39110866 0.87561637 4278780931
-0.23266378 0.39110866 0.87561637 4278846468
-0.23099594 0.39110866 0.87561637 4278977542
-0.22932808 0.39110866 0.87561637 4278846472
-0.22766025 0.39110866 0.87561637 4278780935
-0.22599241 0.39110866 0.87561637 4278780935
-0.22432457 0.39110866 0.87561637 4278780934
-0.22265673 0.39110866 0.87561637 4278715653
-0.2209889 0.39110866 0.87561637 4278650373
-0.21881743 0.39021057 0.87360573 4278650374
-0.21715342 0.39021057 0.87360573 4278650117
-0.21598537 0.39110866 0.87561637 4278715653
-0.21431752 0.39110866 0.87561637 4278780933
-0.21264969 0.39110866 0.87561637 4278977541
-0.21098185 0.39110866 0.87561637 4279239686
-0.20883337 0.39021057 0.87360573 4278977543
-0.20716937 0.39021057 0.87360573 4278715143
-0.20550534 0.39021057 0.87360573 4278715399
-0.20431049 0.39110866 0.87561637 4278780933
-0.20217733 0.39021057 0.87360573 4278780932
-0.20051332 0.39021057 0.87360573 4278780676
-0.19884929 0.39021057 0.87360573 4278780933
-0.19718529 0.39021057 0.87360573 4278780933
-0.19552128 0.39021057 0.87360573 4278780933
-0.19385727 0.39021057 0.87360573 4278780932
-0.19219325 0.39021057 0.87360573 4278780932
-0.19009076 0.38931251 0.8715952 4278780932
-0.18843058 0.38931251 0.8715952 4278780932
-0.18720123 0.39021057 0.87360573 4278780932
-0.1855372 0.39021057 0.87360573 4278780933
-0.18387321 0.39021057 0.87360573 4278780934
-0.18220919 0.39021057 0.87360573 4278911751
-0.18012966 0.38931251 0.8715952 4279108617
-0.17846949 0.38931251 0.8715952 4278912010
-0.17680931 0.38931251 0.8715952 4278715146
-0.17514913 0.38931251 0.8715952 4278715146
-0.17348894 0.38931251 0.8715952 4278715142
-0.17143239 0.38841444 0.86958462 4278715139
-0.16977604 0.38841444 0.86958462 4278715653
-0.1681197 0.38841444 0.86958462 4278650118
-0.16646335 0.38841444 0.86958462 4278584581
-0.16480698 0.38841444 0.86958462 4278781444
-0.16315064 0.38841444 0.86958462 4278978053
-0.16149428 0.38841444 0.86958462 4278978310
-0.15983793 0.38841444 0.86958462 4279043846
-0.15763296 0.38706735 0.86656868 4279241222
-0.15652522 0.38841444 0.86958462 4279437574
-0.15486887 0.38841444 0.86958462 4279307527
-0.15268114 0.38706735 0.86656868 4279175430
-0.15155618 0.38841444 0.86958462 4279109894
-0.14937994 0.38706735 0.86656868 4279109131
-0.14772934 0.38706735 0.86656868 4279043088
-0.14607872 0.38706735 0.86656868 4278977546
-0.14442812 0.38706735 0.86656868 4278715652
-0.1427775 0.38706735 0.86656868 4278519044
-0.1411269 0.38706735 0.86656868 4278715653
-0.13947628 0.38706735 0.86656868 4278978053
-0.13782568 0.38706735 0.86656868 4278978309
-0.13617507 0.38706735 0.86656868 4278978307
-0.13499266 0.38841444 0.86958462 4278912258
-0.13333631 0.38841444 0.86958462 4278912515
-0.13228886 0.39021057 0.87360573 4279109379
-0.13062486 0.39021057 0.87360573 4279305733
-0.12896085 0.39021057 0.87360573 4279305224
-0.12729684 0.39021057 0.87360573 4279371013
-0.074656449 0.61427855 1.3752505 4279371271
-0.072036929 0.61427855 1.3752505 4279699976
-0.06972187 0.61697274 1.3812823 4280093705
-0.067090854 0.61697274 1.3812823 4280225290
-0.064694412 0.61921793 1.3863088 4280421642
-0.061828829 0.61697274 1.3812823 4280290571
-0.059197813 0.61697274 1.3812823 4280159242
-0.056566801 0.61697274 1.3812823 4280421386
-0.053935785 0.61697274 1.3812823 4280750857
-0.051304772 0.61697274 1.3812823 4280949769
-0.048673756 0.61697274 1.3812823 4281146640
-0.046042744 0.61697274 1.3812823 4281541399
-0.043411732 0.61697274 1.3812823 4281999635
-0.040929116 0.61921793 1.3863088 4281673231
-0.0381497 0.61697274 1.3812823 4281410065
-0.035518691 0.61697274 1.3812823 4281410323
-0.032887675 0.61697274 1.3812823 4281408529
-0.030256661 0.61697274 1.3812823 4281408016
-0.027625646 0.61697274 1.3812823 4281473553
-0.024994632 0.61697274 1.3812823 4281342482
-0.022363618 0.61697274 1.3812823 4281277200
-0.019732604 0.61697274 1.3812823 4281278223
-0.017101591 0.61697274 1.3812823 4281277711
-0.014470576 0.61697274 1.3812823 4281474318
-0.011839563 0.61697274 1.3812823 4281736465
-0.0092085479 0.61697274 1.3812823 4281474580
-0.0065775346 0.61697274 1.3812823 4281277716
-0.0039465209 0.61697274 1.3812823 4281278228
-0.001315507 0.61697274 1.3812823 4281276946
0.001315507 0.61697274 1.3812823 4281473552
0.0039465209 0.61697274 1.3812823 4281735698
0.0065775346 0.61697274 1.3812823 4281080341
0.0092085479 0.61697274 1.3812823 4280423949
0.011839563 0.61697274 1.3812823 4280029446
0.014470576 0.61697274 1.3812823 4279701000
0.017101591 0.61697274 1.3812823 4279896842
0.019732604 0.61697274 1.3812823 4280160524
0.02226596 0.61427855 1.3752505 4280423695
0.024885485 0.61427855 1.3752505 4280752400
0.02750501 0.61427855 1.3752505 4280817681
0.030124534 0.61427855 1.3752505 4280949008
0.032744057 0.61427855 1.3752505 4281014800
0.035363585 0.61427855 1.3752505 4281145612
0.037983108 0.61427855 1.3752505 4281012232
0.040602632 0.61427855 1.3752505 4280947981
0.043222159 0.61427855 1.3752505 4281080338
0.045841683 0.61427855 1.3752505 4281212181
0.048461206 0.61427855 1.3752505 4281409817
0.051080734 0.61427855 1.3752505 4281671447
0.053700257 0.61427855 1.3752505 4281604886
0.056319781 0.61427855 1.3752505 4281540372
0.058939308 0.61427855 1.3752505 4281540881
0.061558831 0.61427855 1.3752505 4281540880
0.064178355 0.61427855 1.3752505 4281540880
0.066797875 0.61427855 1.3752505 4281541394
0.069417402 0.61427855 1.3752505 4281541652
0.072036929 0.61427855 1.3752505 4281541650
0.074656449 0.61427855 1.3752505 4281476367
0.07699354 0.61203337 1.370224 4281476110
0.079603486 0.61203337 1.370224 4281607181
0.082213439 0.61203337 1.370224 4281738254
0.084823392 0.61203337 1.370224 4281739024
0.087433338 0.61203337 1.370224 4281739021
0.090373598 0.61427855 1.3752505 4281673995
0.092653237 0.61203337 1.370224 4281673484
0.095612645 0.61427855 1.3752505 4281739022
0.098232172 0.61427855 1.3752505 4281803789
0.1008517 0.61427855 1.3752505 4281803277
0.10309304 0.61203337 1.370224 4281803534
0.105703 0.61203337 1.370224 4281803791
0.10831294 0.61203337 1.370224 4281804048
0.1109229 0.61203337 1.370224 4281936145
0.11311637 0.60978824 1.3651975 4282067218
0.11571674 0.60978824 1.3651975 4282067220
0.11831712 0.60978824 1.3651975 4282132504
0.12091749 0.60978824 1.3651975 4282066972
0.12351788 0.60978824 1.3651975 4282001687
0.12611824 0.60978824 1.3651975 4282068498
0.12871863 0.60978824 1.3651975 4282134034
0.13073879 0.60709405 1.3591658 4282134290
0.13332769 0.60709405 1.3591658 4282133524
0.13591658 0.60709405 1.3591658 4282002709
0.13850546 0.60709405 1.3591658 4281870614
0.14109436 0.60709405 1.3591658 4281936152
0.14368324 0.60709405 1.3591658 4282001174
0.14627214 0.60709405 1.3591658 4281870100
0.14952163 0.60978824 1.3651975 4281804563
0.1514499 0.60709405 1.3591658 4281805330
0.15472239 0.60978824 1.3651975 4281805076
0.15662767 0.60709405 1.3591658 4281936150
0.15921657 0.60709405 1.3591658 4282131475
0.16180545 0.60709405 1.3591658 4281803793
0.16439433 0.60709405 1.3591658 4281475349
0.16698322 0.60709405 1.3591658 4281278746
0.16957211 0.60709405 1.3591658 4281146388
0.172161 0.60709405 1.3591658 4281146127
0.17474988 0.60709405 1.3591658 4281212175
0.17733878 0.60709405 1.3591658 4281672208
0.17992766 0.60709405 1.3591658 4282130957
0.18251655 0.60709405 1.3591658 4281803531
0.18510543 0.60709405 1.3591658 4281475341
0.18769433 0.60709405 1.3591658 4281606414
0.19028319 0.60709405 1.3591658 4281737230
0.19287209 0.60709405 1.3591658 4281737742
0.19546099 0.60709405 1.3591658 4281738512
0.19804987 0.60709405 1.3591658 4281870610
0.20063876 0.60709405 1.3591658 4282067475
0.20322764 0.60709405 1.3591658 4282199060
0.20581654 0.60709405 1.3591658 4282395929
0.20840542 0.60709405 1.3591658 4282330398
0.2109943 0.60709405 1.3591658 4282330144
0.2135832 0.60709405 1.3591658 4282133282
0.21617207 0.60709405 1.3591658 4282002210
0.21876097 0.60709405 1.3591658 4282132770
0.22053127 0.60484892 1.3541393 4282264097
0.22311057 0.60484892 1.3541393 4282264608
0.22568989 0.60484892 1.3541393 4282330144
0.2282692 0.60484892 1.3541393 4282330400
0.23084852 0.60484892 1.3541393 4282395937
0.23342782 0.60484892 1.3541393 4282592802
0.23600714 0.60484892 1.3541393 4282854944
0.23858646 0.60484892 1.3541393 4282461726
0.24116577 0.60484892 1.3541393 4282133534
0.24374507 0.60484892 1.3541393 4282198558
0.24541001 0.60260361 1.3491126 4282264094
0.24797973 0.60260361 1.3491126 4282264094
0.25148299 0.60484892 1.3541393 4282264090
0.25406232 0.60484892 1.3541393 4282329623
0.25664163 0.60484892 1.3541393 4282461214
0.25922096 0.60484892 1.3541393 4282330918
0.26180026 0.60484892 1.3541393 4282265635
0.26437959 0.60484892 1.3541393 4282200351
0.26695889 0.60484892 1.3541393 4282199840
0.26953819 0.60484892 1.3541393 4281871904
0.2721175 0.60484892 1.3541393 4281608987
0.27469683 0.60484892 1.3541393 4281739542
0.27727613 0.60484892 1.3541393 4281870872
0.27985546 0.60484892 1.3541393 4281871130
0.28243479 0.60484892 1.3541393 4281871383
0.28501409 0.60484892 1.3541393 4282068245
0.28652582 0.60260361 1.3491126 4282264852
0.28909558 0.60260361 1.3491126 4282264850
0.29036132 0.59990948 1.343081 4282264594
0.29291958 0.59990948 1.343081 4282067730
0.29547781 0.59990948 1.343081 4281870867
0.29803607 0.59990948 1.343081 4281870613
0.3005943 0.59990948 1.343081 4281870357
0.30315259 0.59990948 1.343081 4281738773
0.30708373 0.60260361 1.3491126 4281607701
0.30965346 0.60260361 1.3491126 4281738774
0.31082731 0.59990948 1.343081 4281870101
0.31338555 0.59990948 1.343081 4281936148
0.31594381 0.59990948 1.343081 4282066966
0.31850204 0.59990948 1.343081 4282066968
0.3198587 0.5976643 1.3380544 4282067482
0.32361856 0.59990948 1.343081 4282264861
0.32617682 0.59990948 1.343081 4282461724
0.32873505 0.59990948 1.343081 4282528027
0.33129331 0.59990948 1.343081 4282593052
0.33260211 0.5976643 1.3380544 4282461982
0.33792058 0.60260361 1.3491126 4282330910
0.34049034 0.60260361 1.3491126 4282462495
0.34306008 0.60260361 1.3491126 4282658850
0.34408456 0.59990948 1.343081 4282986277
0.34664279 0.59990948 1.343081 4283313960
0.34920105 0.59990948 1.343081 4283117868
0.35044283 0.5976643 1.3380544 4282986793
0.35299149 0.5976643 1.3380544 4282921510
0.35554016 0.5976643 1.3380544 4282856232
0.35808885 0.5976643 1.3380544 4282921259
0.36063752 0.5976643 1.3380544 4282988074
0.36318621 0.5976643 1.3380544 4283053866
0.36573485 0.5976643 1.3380544 4283184424
0.36828354 0.5976643 1.3380544 4283183655
0.37083223 0.5976643 1.3380544 4283184423
0.3733809 0.5976643 1.3380544 4283184935
0.37592956 0.5976643 1.3380544 4283185446
0.37847826 0.5976643 1.3380544 4283120421
0.38102692 0.5976643 1.3380544 4283054118
0.38357562 0.5976643 1.3380544 4283118888
0.38612425 0.5976643 1.3380544 4283185190
0.38867295 0.5976643 1.3380544 4283185956
0.39122164 0.5976643 1.3380544 4283185959
0.39377028 0.5976643 1.3380544 4283185962
0.39631897 0.5976643 1.3380544 4283251503
0.39886764 0.5976643 1.3380544 4283317044
0.40141633 0.5976643 1.3380544 4283447853
0.403965 0.5976643 1.3380544 4283317286
0.40651366 0.5976643 1.3380544 4283185448
0.40906236 0.5976643 1.3380544 4283119401
0.41161102 0.5976643 1.3380544 4283119652
0.41415969 0.5976643 1.3380544 4282858015
0.41670838 0.5976643 1.3380544 4282660900
0.41925704 0.5976643 1.3380544 4282922537
0.42022121 0.59541917 1.333028 4283250210
0.42276031 0.59541917 1.333028 4283512092
0.42529938 0.59541917 1.333028 4283774243
0.42783847 0.59541917 1.333028 4283511338
0.4303776 0.59541917 1.333028 4283314729
0.4329167 0.59541917 1.333028 4283118377
0.43709779 0.5976643 1.3380544 4282987559
0.43964645 0.5976643 1.3380544 4282988582
0.440534 0.59541917 1.333028 4282988325
0.44474378 0.5976643 1.3380544 4283053861
0.44561219 0.59541917 1.333028 4283184415
0.44815129 0.59541917 1.333028 4283249689
0.45069039 0.59541917 1.333028 4283315229
0.45322952 0.59541917 1.333028 4283183649
0.45576862 0.59541917 1.333028 4283119135
0.45830768 0.59541917 1.333028 4283119644
0.4591091 0.59317398 1.3280015 4283119140
0.46338591 0.59541917 1.333028 4283250219
0.46592501 0.59541917 1.333028 4283446826
0.46846411 0.59541917 1.333028 4283316009
0.4710032 0.59541917 1.333028 4283250469
0.4735423 0.59541917 1.333028 4283119393
0.47608143 0.59541917 1.333028 4282987815
0.4786205 0.59541917 1.333028 4282987820
0.47934529 0.59317398 1.3280015 4283052834
0.48187482 0.59317398 1.3280015 4282987032
0.48257086 0.59092879 1.3229749 4282988318
0.48693389 0.59317398 1.3280015 4283054116
0.48946342 0.59317398 1.3280015 4283119659
0.49199295 0.59317398 1.3280015 4283185202
0.49452248 0.59317398 1.3280015 4283250734
0.49705198 0.59317398 1.3280015 4283119658
0.49958152 0.59317398 1.3280015 4283053866
0.50211108 0.59317398 1.3280015 4283183914
0.50464058 0.59317398 1.3280015 4283315755
0.50717014 0.59317398 1.3280015 4283250477
0.50777036 0.59092879 1.3229749 4283251245
0.51222914 0.59317398 1.3280015 4283317806
0.51281029 0.59092879 1.3229749 4283382567
0.5153302 0.59092879 1.3229749 4283316256
0.51785016 0.59092879 1.3229749 4283315998
0.52037019 0.59092879 1.3229749 4283119389
0.52289009 0.59092879 1.3229749 4282988065
0.52541006 0.59092879 1.3229749 4282922276
0.52792996 0.59092879 1.3229749 4282921761
0.53044993 0.59092879 1.3229749 4282790430
0.53296989 0.59092879 1.3229749 4282724894
0.53548986 0.59092879 1.3229749 4282724894
0.53596568 0.58868361 1.3179485 4282725149
0.53847611 0.58868361 1.3179485 4282659611
0.54098642 0.58868361 1.3179485 4282659359
0.54556966 0.59092879 1.3229749 4282593826
0.54808962 0.59092879 1.3229749 4282593825
0.55060953 0.59092879 1.3229749 4282659359
0.55312955 0.59092879 1.3229749 4282724893
0.55564946 0.59092879 1.3229749 4282724635
0.55816942 0.59092879 1.3229749 4282724635
0.56068933 0.59092879 1.3229749 4282659100
0.56320935 0.59092879 1.3229749 4282659359
0.56572926 0.59092879 1.3229749 4282201122
0.56824923 0.59092879 1.3229749 4281807651
0.57076913 0.59092879 1.3229749 4282200356
0.57328916 0.59092879 1.3229749 4282593059
0.57580906 0.59092879 1.3229749 4282527266
0.57832903 0.59092879 1.3229749 4282528292
0.58084899 0.59092879 1.3229749 4282593829
0.58336896 0.59092879 1.3229749 4282659877
0.58366287 0.58868361 1.3179485 4282660644
0.58617324 0.58868361 1.3179485 4282659875
0.58868361 0.58868361 1.3179485 4282790434
0.59119403 0.58868361 1.3179485 4282921504
0.5937044 0.58868361 1.3179485 4282790431
0.59621477 0.58868361 1.3179485 4282659355
0.5987252 0.58868361 1.3179485 4282528535
0.60123551 0.58868361 1.3179485 4282463513
0.60374594 0.58868361 1.3179485 4282595098
0.60625625 0.58868361 1.3179485 4282725661
0.60876667 0.58868361 1.3179485 4282725408
0.61127704 0.58868361 1.3179485 4282725152
0.61378741 0.58868361 1.3179485 4282724896
0.61629778 0.58868361 1.3179485 4282724896
0.61880821 0.58868361 1.3179485 4282528289
0.61894894 0.58643848 1.312922 4282396964
0.62144971 0.58643848 1.312922 4282659623
0.62633932 0.58868361 1.3179485 4282987555
0.62645137 0.58643848 1.312922 4282922528
0.63136011 0.58868361 1.3179485 4282856989
0.63145298 0.58643848 1.312922 4282856987
0.63638085 0.58868361 1.3179485 4282856986
0.63889116 0.58868361 1.3179485 4282856986
0.64384776 0.59092879 1.3229749 4282856475
0.64636779 0.59092879 1.3229749 4282725404
0.64888769 0.59092879 1.3229749 4282593565
0.65140766 0.59092879 1.3229749 4282593311
0.65392756 0.59092879 1.3229749 4282593565
0.65644759 0.59092879 1.3229749 4282593819
0.65896749 0.59092879 1.3229749 4282593307
0.66148746 0.59092879 1.3229749 4282462236
0.66400737 0.59092879 1.3229749 4282396697
0.66652739 0.59092879 1.3229749 4282396951
0.6690473 0.59092879 1.3229749 4282396444
0.67156726 0.59092879 1.3229749 4282527265
0.67408723 0.59092879 1.3229749 4282658336
0.67660719 0.59092879 1.3229749 4282527263
0.67912716 0.59092879 1.3229749 4282395676
0.68164706 0.59092879 1.3229749 4282199064
0.68936586 0.59541917 1.333028 4282068242
0.69190496 0.59541917 1.333028 4282003212
0.69444412 0.59541917 1.333028 4281938197
0.69698316 0.59541917 1.333028 4282004254
0.70216 0.5976643 1.3380544 4282135069
-0.44969085 0.33460408 0.7459327 4283576080
-0.44827002 0.33460408 0.7459327 4283511055
-0.44684923 0.33460408 0.7459327 4283511056
-0.86230326 0.65613061 1.4627116 4283313678
-0.85951716 0.65613061 1.4627116 4283379471
-0.85673106 0.65613061 1.4627116 4283378705
-0.8574664 0.65883631 1.4687434 4283378706
-0.85817873 0.66154212 1.4747753 4283313427
-0.85187119 0.65883631 1.4687434 4283247890
-0.84907359 0.65883631 1.4687434 4283313681
-0.84627599 0.65883631 1.4687434 4283445009
-0.84347838 0.65883631 1.4687434 4283379473
-0.84413332 0.66154212 1.4747753 4283379728
-0.84132421 0.66154212 1.4747753 4283379727
-0.8385151 0.66154212 1.4747753 4283445518
-0.835706 0.66154212 1.4747753 4283313934
-0.83630341 0.66424775 1.4808071 4283182606
-0.8334828 0.66424775 1.4808071 4283314447
-0.83066225 0.66424775 1.4808071 4283446029
-0.8278417 0.66424775 1.4808071 4283445515
-0.82502109 0.66424775 1.4808071 4283445515
-0.82220054 0.66424775 1.4808071 4283445516
-0.81937987 0.66424775 1.4808071 4283511055
-0.81323326 0.66154212 1.4747753 4283445522
-0.81042415 0.66154212 1.4747753 4283446034
-0.80761504 0.66154212 1.4747753 4283445523
-0.80151427 0.65883631 1.4687434 4283445776
-0.79871666 0.65883631 1.4687434 4283445774
-0.79591906 0.65883631 1.4687434 4283380497
-0.39520359 0.32829082 0.73185849 4283510805
-0.39272764 0.32738888 0.72984785 4283641617
-0.39079842 0.32693794 0.72884256 4283640845
-0.39155865 0.32874173 0.73286378 4283574794
-0.39016274 0.32874173 0.73286378 4283575815
-0.77913338 0.65883631 1.4687434 4283576073
-0.77314752 0.65613061 1.4627116 4283576076
-0.77036142 0.65613061 1.4627116 4283641616
-0.76757532 0.65613061 1.4627116 4283510037
-0.76478916 0.65613061 1.4627116 4283444245
-0.75675255 0.65883631 1.4687434 4283314958
-0.75395495 0.65883631 1.4687434 4283445521
-0.75115734 0.65883631 1.4687434 4283575567
-0.74528641 0.65613061 1.4627116 4283575566
-0.74250025 0.65613061 1.4627116 4283641871
-0.73971409 0.65613061 1.4627116 4283510801
-0.73692799 0.65613061 1.4627116 4283445775
-0.73414189 0.65613061 1.4627116 4283445261
-0.73135579 0.65613061 1.4627116 4283510542
-0.72856969 0.65613061 1.4627116 4283510543
-0.72578359 0.65613061 1.4627116 4283510542
-0.72299743 0.65613061 1.4627116 4283510542
-0.72021127 0.65613061 1.4627116 4283510539
-0.71742517 0.65613061 1.4627116 4283510025
-0.71463907 0.65613061 1.4627116 4283510022
-0.71185297 0.65613061 1.4627116 4283378947
-0.70906687 0.65613061 1.4627116 4283313672
-0.70628077 0.65613061 1.4627116 4283379214
-0.70349461 0.65613061 1.4627116 4283510285
-0.69781905 0.65342498 1.4566799 4283378701
-0.6950444 0.65342498 1.4566799 4283247885
-0.6922698 0.65342498 1.4566799 4283444238
-0.68949515 0.65342498 1.4566799 4283706380
-0.68672055 0.65342498 1.4566799 4283574795
-0.68394589 0.65342498 1.4566799 4283509004
-0.67835063 0.65071929 1.4506481 4283509518
-0.67558748 0.65071929 1.4506481 4283510542
-0.67282438 0.65071929 1.4506481 4283444494
-0.67284739 0.65342498 1.4566799 4283444494
-0.67007279 0.65342498 1.4566799 4283444494
-0.66729814 0.65342498 1.4566799 4283510286
-0.66452348 0.65342498 1.4566799 4283444494
-0.66174883 0.65342498 1.4566799 4283379471
-0.65624559 0.65071929 1.4506481 4283445009
-0.65348244 0.65071929 1.4506481 4283510545
-0.65071929 0.65071929 1.4506481 4283444242
-0.64795613 0.65071929 1.4506481 4283444240
-0.64519298 0.65071929 1.4506481 4283509774
-0.64242983 0.65071929 1.4506481 4283641101
-0.63700694 0.64801353 1.4446162 4283510028
-0.63690358 0.65071929 1.4506481 4283444486
-0.63677722 0.65342498 1.4566799 4283444225
-0.63137728 0.65071929 1.4506481 4283509767
-0.62861413 0.65071929 1.4506481 4283509774
-0.62585098 0.65071929 1.4506481 4283575310
-0.62308788 0.65071929 1.4506481 4283575310
-0.62032473 0.65071929 1.4506481 4283640845
-0.61499375 0.64801353 1.4446162 4283509773
-0.6122421 0.64801353 1.4446162 4283378703
-0.60949045 0.64801353 1.4446162 4283378706
-0.60673881 0.64801353 1.4446162 4283313168
-0.60398716 0.64801353 1.4446162 4283444495
-0.59872514 0.6453079 1.4385844 4283641358
-0.595985 0.6453079 1.4385844 4283510030
-0.59573221 0.64801353 1.4446162 4283444238
-0.59050465 0.6453079 1.4385844 4283510542
-0.5877645 0.6453079 1.4385844 4283576840
-0.58502436 0.6453079 1.4385844 4283642371
-0.58228415 0.6453079 1.4385844 4283773442
-0.57954401 0.6453079 1.4385844 4283641857
-0.57680386 0.6453079 1.4385844 4283576582
-0.57406372 0.6453079 1.4385844 4283576332
-0.56892806 0.64260221 1.4325527 4283576335
-0.56619936 0.64260221 1.4325527 4283576851
-0.56347072 0.64260221 1.4325527 4283641359
-0.56074208 0.64260221 1.4325527 4283640844
-0.55801338 0.64260221 1.4325527 4283640332
-0.55528468 0.64260221 1.4325527 4283640589
-0.55022943 0.63989645 1.4265208 4283575050
-0.54751223 0.63989645 1.4265208 4283575304
-0.5447951 0.63989645 1.4265208 4283575562
-0.5420779 0.63989645 1.4265208 4283575309
-0.53936076 0.63989645 1.4265208 4283575305
-0.53664351 0.63989645 1.4265208 4283181062
-0.31355214 0.39593312 0.88265347 4278911240
-0.31080529 0.39458027 0.8796376 4278780420
-0.30912977 0.39458027 0.8796376 4278649860
-0.30850843 0.39593312 0.88265347 4278649604
-0.30577877 0.39458027 0.8796376 4278649603
-0.30514589 0.39593312 0.88265347 4278649602
-0.30346468 0.39593312 0.88265347 4278715139
-0.30178341 0.39593312 0.88265347 4278584068
-0.30010217 0.39593312 0.88265347 4278518532
-0.29842094 0.39593312 0.88265347 4278584068
-0.2967397 0.39593312 0.88265347 4278649607
-0.29505846 0.39593312 0.88265347 4278649611
-0.29337719 0.39593312 0.88265347 4278715146
-0.29069927 0.39458027 0.8796376 4278649609
-0.28902379 0.39458027 0.8796376 4278649607
-0.28734827 0.39458027 0.8796376 4278715141
-0.28567278 0.39458027 0.8796376 4278780933
-0.28399727 0.39458027 0.8796376 4278780677
-0.28232178 0.39458027 0.8796376 4278846212
-0.28064626 0.39458027 0.8796376 4278715140
-0.27992725 0.39593312 0.88265347 4278650116
-0.27824599 0.39593312 0.88265347 4278518789
-0.27656478 0.39593312 0.88265347 4278453253
-0.27488351 0.39593312 0.88265347 4278518789
-0.27320224 0.39593312 0.88265347 4278649604
-0.27152103 0.39593312 0.88265347 4278584068
-0.25934923 0.39277649 0.87561637 4278518532
-0.2576814 0.39277649 0.87561637 4278649604
-0.25660142 0.39367837 0.87762696 4278715140
-0.25492972 0.39367837 0.87762696 4278780420
-0.25325805 0.39367837 0.87762696 4278780676
-0.25216275 0.39458027 0.8796376 4278715139
-0.24991472 0.39367837 0.87762696 4278715138
-0.24824306 0.39367837 0.87762696 4278649859
-0.24657139 0.39367837 0.87762696 4278584068
-0.24433866 0.39277649 0.87561637 4278584070
-0.24267082 0.39277649 0.87561637 4278518537
-0.24100298 0.39277649 0.87561637 4278518535
-0.23933513 0.39277649 0.87561637 4278649861
-0.23712155 0.39187455 0.87360573 4278780931
-0.23599946 0.39277649 0.87561637 4278715393
-0.23433162 0.39277649 0.87561637 4278715394
-0.23266378 0.39277649 0.87561637 4278780932
-0.23099594 0.39277649 0.87561637 4278846471
-0.22932808 0.39277649 0.87561637 4278780682
-0.22766025 0.39277649 0.87561637 4278780681
-0.22599241 0.39277649 0.87561637 4278780937
-0.22432457 0.39277649 0.87561637 4278780935
-0.22265673 0.39277649 0.87561637 4278715397
-0.22048146 0.39187455 0.87360573 4278715909
-0.21881743 0.39187455 0.87360573 4278715653
-0.21715342 0.39187455 0.87360573 4278715396
-0.21548942 0.39187455 0.87360573 4278715396
-0.2138254 0.39187455 0.87360573 4278715396
-0.21216138 0.39187455 0.87360573 4278846469
-0.21049738 0.39187455 0.87360573 4278977287
-0.20835276 0.3909727 0.8715952 4278846218
-0.20669258 0.3909727 0.8715952 4278715146
-0.20550534 0.39187455 0.87360573 4278715146
-0.20384133 0.39187455 0.87360573 4278780935
-0.20217733 0.39187455 0.87360573 4278780676
-0.20051332 0.39187455 0.87360573 4278780676
-0.19839166 0.3909727 0.8715952 4278715397
-0.19673149 0.3909727 0.8715952 4278649861
-0.19507131 0.3909727 0.8715952 4278649861
-0.19296497 0.3900708 0.86958462 4278649861
-0.19130862 0.3900708 0.86958462 4278715397
-0.18965226 0.3900708 0.86958462 4278780933
-0.18799591 0.3900708 0.86958462 4278780933
-0.18677039 0.3909727 0.8715952 4278780933
-0.18511023 0.3909727 0.8715952 4278780933
-0.18345004 0.3909727 0.8715952 4278780933
-0.18178986 0.3909727 0.8715952 4278780677
-0.18012966 0.3909727 0.8715952 4278781192
-0.17846949 0.3909727 0.8715952 4278780939
-0.17680931 0.3909727 0.8715952 4278780682
-0.17514913 0.3909727 0.8715952 4278715402
-0.17348894 0.3909727 0.8715952 4278715910
-0.17143239 0.3900708 0.86958462 4278781442
-0.16977604 0.3900708 0.86958462 4278781700
-0.1681197 0.3900708 0.86958462 4278781959
-0.16646335 0.3900708 0.86958462 4278782470
-0.1642354 0.38871795 0.86656868 4278978565
-0.1625848 0.38871795 0.86656868 4279175175
-0.16149428 0.3900708 0.86958462 4279043849
-0.15983793 0.3900708 0.86958462 4278912777
-0.15763296 0.38871795 0.86656868 4279109385
-0.15652522 0.3900708 0.86958462 4279305993
-0.15433174 0.38871795 0.86656868 4279174922
-0.15321253 0.3900708 0.86958462 4279044104
-0.15155618 0.3900708 0.86958462 4279043591
-0.14937994 0.38871795 0.86656868 4279043335
-0.14772934 0.38871795 0.86656868 4278977799
-0.14607872 0.38871795 0.86656868 4278912260
-0.14442812 0.38871795 0.86656868 4278846977
-0.14244623 0.38781604 0.86455804 4278716162
-0.1411269 0.38871795 0.86656868 4278847236
-0.13947628 0.38871795 0.86656868 4278978565
-0.13782568 0.38871795 0.86656868 4279043847
-0.074656449 0.61689806 1.3752505 4279371271
-0.072036929 0.61689806 1.3752505 4279699467
-0.06972187 0.61960381 1.3812823 4280093195
-0.067335002 0.62185848 1.3863088 4280159243
-0.064694412 0.62185848 1.3863088 4280290313
-0.061828829 0.61960381 1.3812823 4280159240
-0.058939308 0.61689806 1.3752505 4280028166
-0.056319781 0.61689806 1.3752505 4280356101
-0.053700257 0.61689806 1.3752505 4280750341
-0.051080734 0.61689806 1.3752505 4280882694
-0.048461206 0.61689806 1.3752505 4281015562
-0.045841683 0.61689806 1.3752505 4281146382
-0.043222159 0.61689806 1.3752505 4281342734
-0.040602632 0.61689806 1.3752505 4281211406
-0.037983108 0.61689806 1.3752505 4281145876
-0.035363585 0.61689806 1.3752505 4281080346
-0.032887675 0.61960381 1.3812823 4281080339
-0.030256661 0.61960381 1.3812823 4281145356
-0.027625646 0.61960381 1.3812823 4281275917
-0.024994632 0.61960381 1.3812823 4281275663
-0.022363618 0.61960381 1.3812823 4281209871
-0.019732604 0.61960381 1.3812823 4281211152
-0.017101591 0.61960381 1.3812823 4281211918
-0.014470576 0.61960381 1.3812823 4281342221
-0.011839563 0.61960381 1.3812823 4281473039
-0.0092085479 0.61960381 1.3812823 4281276177
-0.0065775346 0.61960381 1.3812823 4281079058
-0.0039465209 0.61960381 1.3812823 4281079060
-0.0013097624 0.61689806 1.3752505 4281079056
0.001315507 0.61960381 1.3812823 4281144333
0.0039465209 0.61960381 1.3812823 4281209866
0.0065775346 0.61960381 1.3812823 4280554504
0.0092085479 0.61960381 1.3812823 4279964932
0.011839563 0.61960381 1.3812823 4279897345
0.014407386 0.61689806 1.3752505 4279896324
0.017026911 0.61689806 1.3752505 4280160263
0.019646436 0.61689806 1.3752505 4280490254
0.02226596 0.61689806 1.3752505 4280752917
0.024885485 0.61689806 1.3752505 4280950036
0.02750501 0.61689806 1.3752505 4281081108
0.030124534 0.61689806 1.3752505 4281212179
0.032744057 0.61689806 1.3752505 4281344018
0.035363585 0.61689806 1.3752505 4281410321
0.037844282 0.61464334 1.370224 4281343760
0.040454231 0.61464334 1.370224 4281277971
0.043064181 0.61464334 1.370224 4281344022
0.045674134 0.61464334 1.370224 4281475863
0.048284084 0.61464334 1.370224 4281607449
0.050894033 0.61464334 1.370224 4281739032
0.053700257 0.61689806 1.3752505 4281738007
0.056319781 0.61689806 1.3752505 4281803285
0.058939308 0.61689806 1.3752505 4281803540
0.061558831 0.61689806 1.3752505 4281870097
0.064178355 0.61689806 1.3752505 4281739278
0.066797875 0.61689806 1.3752505 4281674257
0.069417402 0.61689806 1.3752505 4281804821
0.071773641 0.61464334 1.370224 4281935892
0.074383587 0.61464334 1.370224 4281804819
0.07699354 0.61464334 1.370224 4281739537
0.079311475 0.61238861 1.3651975 4281738512
0.082213439 0.61464334 1.370224 4281804305
0.084512226 0.61238861 1.3651975 4281804563
0.087433338 0.61464334 1.370224 4281870868
0.090043291 0.61464334 1.370224 4281870869
0.092653237 0.61464334 1.370224 4281870868
0.095263191 0.61464334 1.370224 4281935892
0.097873144 0.61464334 1.370224 4282066197
0.10048309 0.61464334 1.370224 4282000918
0.10309304 0.61464334 1.370224 4281935891
0.10531524 0.61238861 1.3651975 4281870353
0.10791561 0.61238861 1.3651975 4281805075
0.11051599 0.61238861 1.3651975 4282001685
0.11311637 0.61238861 1.3651975 4282132758
0.11571674 0.61238861 1.3651975 4282133016
0.11831712 0.61238861 1.3651975 4282199071
0.12038326 0.60968298 1.3591658 4282067751
0.12351788 0.61238861 1.3651975 4282002205
0.12556103 0.60968298 1.3591658 4282133779
0.12814993 0.60968298 1.3591658 4282330642
0.13073879 0.60968298 1.3591658 4282264850
0.13332769 0.60968298 1.3591658 4282199063
0.13591658 0.60968298 1.3591658 4282133277
0.13850546 0.60968298 1.3591658 4282067228
0.14109436 0.60968298 1.3591658 4282067228
0.14368324 0.60968298 1.3591658 4282132760
0.14627214 0.60968298 1.3591658 4281935892
0.14886101 0.60968298 1.3591658 4281804820
0.1514499 0.60968298 1.3591658 4281739541
0.15403879 0.60968298 1.3591658 4281739545
0.15662767 0.60968298 1.3591658 4281738270
0.15921657 0.60968298 1.3591658 4281736729
0.16180545 0.60968298 1.3591658 4281473812
0.16378637 0.60742819 1.3541393 4281145363
0.16636568 0.60742819 1.3541393 4280882451
0.16957211 0.60968298 1.3591658 4280619536
0.172161 0.60968298 1.3591658 4280685325
0.17474988 0.60968298 1.3591658 4280816909
0.17733878 0.60968298 1.3591658 4281211918
0.17992766 0.60968298 1.3591658 4281606669
0.18251655 0.60968298 1.3591658 4281475853
0.18510543 0.60968298 1.3591658 4281345040
0.18769433 0.60968298 1.3591658 4281475347
0.19028319 0.60968298 1.3591658 4281606160
0.19215882 0.60742819 1.3541393 4281672461
0.19473813 0.60742819 1.3541393 4281739536
0.19804987 0.60968298 1.3591658 4281870611
0.19989677 0.60742819 1.3541393 4282002196
0.20322764 0.60968298 1.3591658 4282133525
0.20581654 0.60968298 1.3591658 4282330905
0.20840542 0.60968298 1.3591658 4282265117
0.2109943 0.60968298 1.3591658 4282199327
0.21279332 0.60742819 1.3541393 4282002722
0.21537264 0.60742819 1.3541393 4281806116
0.21795195 0.60742819 1.3541393 4281936422
0.22053127 0.60742819 1.3541393 4282133028
0.22311057 0.60742819 1.3541393 4282199075
0.22568989 0.60742819 1.3541393 4282330659
0.2282692 0.60742819 1.3541393 4282330403
0.23084852 0.60742819 1.3541393 4282330663
0.23342782 0.60742819 1.3541393 4282461227
0.23600714 0.60742819 1.3541393 4282591782
0.23858646 0.60742819 1.3541393 4282395682
0.24116577 0.60742819 1.3541393 4282199328
0.24284028 0.60517341 1.3491126 4282198558
0.24541001 0.60517341 1.3491126 4282263834
0.24797973 0.60517341 1.3491126 4282264086
0.2505495 0.60517341 1.3491126 4282264338
0.2531192 0.60517341 1.3491126 4282329870
0.25568897 0.60517341 1.3491126 4282395671
0.2582587 0.60517341 1.3491126 4282330145
0.26082844 0.60517341 1.3491126 4282264866
0.26437959 0.60742819 1.3541393 4282198819
0.26596794 0.60517341 1.3491126 4282133023
0.26853764 0.60517341 1.3491126 4281936411
0.2721175 0.60742819 1.3541393 4281674006
0.27469683 0.60742819 1.3541393 4281805074
0.27727613 0.60742819 1.3541393 4282001687
0.27985546 0.60742819 1.3541393 4282002204
0.28138635 0.60517341 1.3491126 4282068248
0.28501409 0.60742819 1.3541393 4282199317
0.28652582 0.60517341 1.3491126 4282330901
0.28909558 0.60517341 1.3491126 4282330902
0.29036132 0.60246772 1.343081 4282396950
0.29291958 0.60246772 1.343081 4282265110
0.29547781 0.60246772 1.343081 4282133783
0.29803607 0.60246772 1.343081 4282132760
0.3005943 0.60246772 1.343081 4282132504
0.30315259 0.60246772 1.343081 4282067224
0.30571082 0.60246772 1.343081 4282002202
0.30826908 0.60246772 1.343081 4282133533
0.31082731 0.60246772 1.343081 4282331419
0.31338555 0.60246772 1.343081 4282397210
0.31594381 0.60246772 1.343081 4282463517
0.31850204 0.60246772 1.343081 4282396960
0.3198587 0.60021299 1.3380544 4282396704
0.32240739 0.60021299 1.3380544 4282527777
0.32495609 0.60021299 1.3380544 4282725417
